90.87355042 -91.22592926 20.37528801
124.39524841 -91.22592926 -2.86581135
114.25025177 -91.22592926 6.25508881
88.89914703 -91.22592926 -37.78371048
121.07524872 -91.22592926 -1.70701122
74.08345032 -91.22592926 0.21178865
81.75195313 -91.22592926 -55.86671448
93.28455353 -91.22592926 -43.51401520
114.00544739 -91.22592926 -52.37901306
121.92584991 -91.22592926 -23.64651108
67.51364899 -91.22592926 -7.05371141
87.51294708 -91.22592926 -39.24021149
69.52165222 -91.22592926 26.78308678
135.48464966 -91.22592926 -48.34351349
87.44084930 -91.22592926 -54.70381165
60.49324799 -91.22592926 6.65128899
82.10105133 -91.22592926 -25.16721153
113.62014771 -91.22592926 -5.17161131
127.15385437 -91.22592926 -56.36100769
84.90215302 -91.22592926 -45.76071167
49.98545074 -91.22592926 -42.55241394
53.44995117 -91.22592926 37.40528870
97.82935333 -91.22592926 -7.58651161
52.51425171 -91.22592926 -17.03991127
139.95974731 -91.22592926 -40.30341339
100.31185150 -91.22592926 39.01188660
114.29464722 -91.22592926 8.27608871
61.18495178 -91.22592926 23.35908890
62.63235092 -91.22592926 11.84888840
68.36634827 -91.22592926 -30.91321182
70.22575378 -91.22592926 -26.51741219
72.29795074 -91.22592926 32.24188995
45.70705032 -91.22592926 40.75019073
106.28765106 -91.22592926 39.25769043
140.14755249 -91.22592926 9.93868828
102.43824768 -91.22592926 -47.46091461
48.89775085 -91.22592926 -52.93031311
101.99935150 -91.22592926 -40.46031189
137.28295898 -91.22592926 38.70798492
101.31845093 -91.22592926 -46.60810852
86.94685364 -91.22592926 7.80628872
106.70175171 -91.22592926 -7.84071159
82.30905151 -91.22592926 35.79798889
80.22685242 -91.22592926 10.28458786
133.67485046 -91.22592926 27.93538857
132.36495972 -91.22592926 39.11209106
72.61474609 -91.22592926 -34.68991089
100.25575256 -91.22592926 23.93478775
124.29664612 -91.22592926 19.27348900
66.80415344 -91.22592926 -51.64260864
107.53845215 -91.22592926 39.63919067
123.65125275 -91.22592926 -44.96861267
83.17765045 -91.22592926 39.81308746
131.78034973 -91.22592926 -0.85291147
54.78615189 -91.22592926 -45.39270782
53.95835114 -91.22592926 5.80538845
98.59825134 -91.22592926 22.71378899
122.42894745 -91.22592926 17.25918770
120.44104767 -91.22592926 38.05188751
49.34075165 -91.22592926 26.12888908
87.11184692 -91.22592926 13.12808800
113.80685425 -91.22592926 11.28328896
96.74925232 -91.22592926 19.53458786
42.88124847 -91.22592926 9.00578880
111.52005005 -91.22592926 -32.35281372
68.47384644 -91.22592926 -7.40511131
43.00244904 -91.22592926 29.01458931
82.87265015 -91.22592926 -45.22041321
122.08755493 -91.22592926 -2.55261135
120.60655212 -91.22592926 21.53398895
138.02914429 -91.22592926 -24.59361076
54.73035049 -91.22592926 39.80998993
125.54304504 -91.22592926 34.43178558
114.96804810 -91.22592926 39.12799072
131.24475098 -91.22592926 -18.61161041
66.71554565 -91.22592926 -37.72211075
78.96105194 -91.22592926 42.40039063
130.55924988 -91.22592926 15.16078949
122.77694702 -91.22592926 -21.70231247
134.30854797 -91.22592926 -17.47091103
98.35585022 -91.22592926 -11.13221169
102.47875214 -91.22592926 -2.71961117
140.69494629 -91.22592926 -13.34361076
124.07434845 -91.22592926 39.34719086
121.97654724 -91.22592926 -4.04601145
139.74154663 -91.22592926 -38.71881104
116.13905334 -91.22592926 27.67629051
83.78334808 -91.22592926 -36.50111389
71.77655029 -91.22592926 -44.26921082
127.89234924 -91.22592926 -21.09261131
90.96504974 -91.22592926 21.85078812
63.02835083 -91.22592926 -29.38371086
90.34324646 -91.22592926 -5.80371141
140.55784607 -91.22592926 29.84088707
125.32215118 -91.22592926 4.14508820
66.15914917 -91.22592926 -16.50071144
84.45365143 -91.22592926 -19.95621109
132.41204834 -91.22592926 -0.42961121
136.47094727 -91.22592926 3.35608864
51.79515076 -91.22592926 -25.02451134
84.65454865 -91.22592926 26.28278923
137.85545349 -91.22592926 -9.25471115
129.52165222 -91.22592926 -50.74741364
138.79914856 -91.22592926 33.16288757
64.09165192 -91.22592926 -13.52561188
119.58195496 -91.22592926 -56.01161194
61.95154953 -91.22592926 -9.22311115
107.88835144 -91.22592926 2.32948875
63.49645233 -91.22592926 17.44188881
51.31674957 -91.22592926 29.52538872
119.30435181 -91.22592926 -54.41711426
134.32945251 -91.22592926 19.63908768
68.05664825 -91.22592926 -31.56921196
58.96694946 -91.22592926 1.78928852
93.00364685 -91.22592926 -30.93611145
59.95335007 -91.22592926 9.31048775
46.36365128 -91.22592926 -25.57501221
66.31514740 -91.22592926 35.09899139
141.76014709 -91.22592926 4.93168831
42.71224976 -91.22592926 -16.71671104
46.13465118 -91.22592926 41.85668945
108.72505188 -91.22592926 -40.81181335
118.72315216 -91.22592926 -0.72391129
83.86824799 -91.22592926 -34.45581055
134.43205261 -91.22592926 -33.72621155
44.48815155 -91.22592926 39.59429169
103.00375366 -91.22592926 -35.14671326
133.48295593 -91.22592926 22.29768944
131.04345703 -91.22592926 10.87608910
140.39105225 -91.22592926 -31.28051186
69.14445496 -91.22592926 16.81968880
117.68434906 -91.22592926 -1.30021143
86.58125305 -91.22592926 -22.26371002
51.38024902 -91.22592926 -23.41321182
128.47944641 -91.22592926 -17.33091164
121.33084869 -91.22592926 -21.31331253
87.63984680 -91.22592926 -6.86871147
44.23765182 -91.22592926 12.36928940
129.62124634 -91.22592926 8.61628819
101.41245270 -91.22592926 -33.70981216
84.45255280 -91.22592926 -46.35461426
50.77595139 -91.22592926 6.72628880
46.83955002 -91.22592926 -36.96611023
88.34065247 -91.22592926 24.51628876
54.35594940 -91.22592926 -47.80661011
50.34375000 -91.22592926 -6.13211155
117.44194794 -91.22592926 -40.19981384
131.96694946 -91.22592926 -39.04930878
76.69654846 -91.22592926 -33.62221146
93.69474792 -91.22592926 -40.32851410
137.57424927 -91.22592926 -31.07551193
42.76594925 -91.22592926 -45.86370850
114.34425354 -91.22592926 -34.35091400
111.58844757 -91.22592926 -53.90611267
53.19755173 -91.22592926 -11.11871147
47.23015213 -91.22592926 -41.83331299
123.04225159 -91.22592926 -44.98011017
103.26484680 -91.22592926 -30.04881096
94.59134674 -91.22592926 -9.71851158
137.18035889 -91.22592926 0.63338852
50.30955124 -91.22592926 2.19988823
103.51795197 -91.22592926 -54.52201080
132.57495117 -91.22592926 29.45429039
60.18405151 -91.22592926 -30.22971153
126.36955261 -91.22592926 -43.44860840
64.26965332 -91.22592926 -0.52801132
75.35784912 -91.22592926 -26.21191216
48.31164932 -91.22592926 38.42549133
89.14555359 -91.22592926 31.15408897
100.65875244 -91.22592926 -57.07311249
54.03884888 -91.22592926 -7.81351137
63.28174973 -91.22592926 17.35958862
62.70034790 -91.22592926 0.64048862
89.29154968 -91.22592926 -0.08361149
94.62715149 -91.22592926 -24.18161201
106.66455078 -91.22592926 28.09368706
116.67254639 -91.22592926 -49.98251343
139.14054871 -91.22592926 28.30228996
91.92874908 -91.22592926 11.64938927
87.48885345 -91.22592926 -32.57881165
78.58625031 -91.22592926 15.75618935
126.30474854 -91.22592926 2.53238869
126.99714661 -91.22592926 -2.51431131
93.63044739 -91.22592926 -6.84201145
135.10995483 -91.22592926 -33.00781250
51.59915161 -91.22592926 -13.39031124
125.08045197 -91.22592926 -15.10581207
119.24545288 -91.22592926 0.78898859
54.09785080 -91.22592926 -25.08971214
110.28314972 -91.22592926 -49.23731232
107.32315063 -91.22592926 42.17588806
68.70175171 -91.22592926 -49.60330963
122.84835052 -91.22592926 -19.60311127
60.39154816 -91.22592926 -53.00691223
105.71224976 -91.22592926 -10.28261185
107.99645233 -91.22592926 -33.24461365
72.01464844 -91.22592926 -7.24271154
121.19184875 -91.22592926 23.50568771
79.04945374 -91.22592926 -29.40501213
69.65864563 -91.22592926 23.67558861
45.04484940 -91.22592926 -40.49111176
78.80654907 -91.22592926 -14.42211151
127.25735474 -91.22592926 3.71308899
94.69525146 -91.22592926 -38.26391220
100.15374756 -91.22592926 9.19508934
68.13545227 -91.22592926 -51.17181396
53.30575180 -91.22592926 18.29438782
77.28215027 -91.22592926 -2.04281139
42.89265060 -91.22592926 -43.17321014
114.95355225 -91.22592926 8.38528824
125.66635132 -91.22592926 14.78228951
52.16934967 -91.22592926 31.15349007
97.34404755 -91.22592926 20.36168861
73.40975189 -91.22592926 -7.97311115
90.78735352 -91.22592926 -51.07231140
129.92825317 -91.22592926 4.43388844
95.89544678 -91.22592926 19.65448952
47.64944839 -91.22592926 -49.96291351
113.10354614 -91.22592926 -13.17241096
138.00964355 -91.22592926 -5.39711142
47.89104843 -91.22592926 -37.96831131
95.39074707 -91.22592926 -38.01081085
49.30815125 -91.22592926 33.03398895
76.33315277 -91.22592926 22.95578957
53.39675140 -91.22592926 31.81159019
125.38824463 -91.22592926 -36.39841080
78.22094727 -91.22592926 -32.91680908
74.17724609 -91.22592926 7.56068897
123.60385132 -91.22592926 12.56948853
124.65705109 -91.22592926 -23.88951111
48.26364899 -91.22592926 -41.58051300
81.81855011 -91.22592926 -48.61061096
70.40695190 -91.22592926 -57.11291504
140.29425049 -91.22592926 33.12139130
125.93865204 -91.22592926 38.75728607
67.56475067 -91.22592926 -38.54601288
47.74784851 -91.22592926 9.93988800
74.22004700 -91.22592926 15.22328949
136.62625122 -91.22592926 18.60328865
119.20314789 -91.22592926 -31.63661194
114.69194794 -91.22592926 34.78578949
87.29215240 -91.22592926 -38.37580872
46.81575012 -91.22592926 -2.25021124
129.13125610 -91.22592926 14.79028893
58.28324890 -91.22592926 -25.15861130
44.18054962 -91.22592926 18.85878944
57.65465164 -91.22592926 31.40228844
127.39765167 -91.22592926 -17.84421158
56.31845093 -91.22592926 0.92138863
117.68734741 -91.22592926 -42.89350891
81.70024872 -91.22592926 -50.39181519
102.26954651 -91.22592926 -47.83051300
121.48944855 -91.22592926 42.26278687
114.99465179 -91.22592926 23.63808823
90.24185181 -91.22592926 -32.90951157
71.49144745 -91.22592926 39.14179230
94.65295410 -91.22592926 1.64698887
119.56614685 -91.22592926 -14.57041168
94.73815155 -91.22592926 36.61338806
117.46465302 -91.22592926 -48.26871490
70.97875214 -91.22592926 7.29738903
57.12475204 -91.22592926 14.98108864
100.01155090 -91.22592926 28.92868996
136.67175293 -91.22592926 -8.80131149
116.52645111 -91.22592926 -52.57281494
121.22354889 -91.22592926 -8.29991150
110.39524841 -91.22592926 -16.49601173
122.85214996 -91.22592926 -7.58631134
90.07324982 -91.22592926 -19.19561005
116.22195435 -91.22592926 -39.75080872
123.63214874 -91.22592926 -20.94211197
55.25165176 -91.22592926 -23.75301170
113.08834839 -91.22592926 9.55698776
43.95825195 -91.22592926 -41.26411438
99.95095062 -91.22592926 7.90658855
50.46564865 -91.22592926 8.93098831
81.77735138 -91.22592926 -24.08191109
84.38845062 -91.22592926 -26.13631058
71.80474854 -91.22592926 -53.68630981
41.98804855 -91.22592926 -6.76251125
92.62685394 -91.22592926 37.41778564
130.06864929 -91.22592926 -41.71371460
60.17544937 -91.22592926 11.05698776
99.74085236 -91.22592926 -2.68971157
93.80705261 -91.22592926 37.37348938
93.80674744 -91.22592926 -1.46881151
134.57275391 -91.22592926 -4.60281134
51.28865051 -91.22592926 -28.01291084
67.02954865 -91.22592926 -51.55161285
138.23855591 -91.22592926 -19.27911186
104.15284729 -91.22592926 1.27838898
139.72094727 -91.22592926 -27.72921181
58.32625198 -91.22592926 14.52698898
70.26505280 -91.22592926 -15.84501171
128.78564453 -91.22592926 -36.72441101
125.61614990 -91.22592926 -30.42961121
136.16004944 -91.22592926 4.57558823
105.97195435 -91.22592926 31.08968925
72.14395142 -91.22592926 -45.32160950
114.74674988 -91.22592926 13.12788773
63.92544937 -91.22592926 -31.58551216
87.82894897 -91.22592926 -29.48771095
129.77355957 -91.22592926 -37.69081116
91.64414978 -91.22592926 0.92228889
95.47865295 -91.22592926 -53.16451263
129.90914917 -91.22592926 40.27799225
124.46754456 -91.22592926 -11.34591103
87.48705292 -91.22592926 0.17468882
96.25174713 -91.22592926 -27.08031082
91.40644836 -91.22592926 25.52948952
56.27965164 -91.22592926 41.44098663
112.32984924 -91.22592926 -21.27131271
104.24694824 -91.22592926 -28.20611191
78.83474731 -91.22592926 -37.46561050
141.55834961 -91.22592926 -31.94341087
93.30875397 -91.22592926 7.70748901
61.58985138 -91.22592926 -19.14641190
121.45745087 -91.22592926 -37.19950867
121.45864868 -91.22592926 -53.74181366
42.13455200 -91.22592926 -43.38990784
102.29354858 -91.22592926 -40.32080841
81.86554718 -91.22592926 -20.76071167
75.02365112 -91.22592926 -28.57981110
67.45985413 -91.22592926 -50.66310883
106.92514801 -91.22592926 -44.17481232
45.82765198 -91.22592926 18.39648819
138.56715393 -91.22592926 -55.19321442
125.33055115 -91.22592926 -52.62210846
128.06175232 -91.22592926 4.53948879
59.33264923 -91.22592926 0.17928839
103.09794617 -91.22592926 -43.79791260
133.42684937 -91.22592926 -10.85611153
125.78355408 -91.22592926 -50.53651428
61.01895142 -91.22592926 -35.94371033
74.26905060 -91.22592926 9.13318825
141.71545410 -91.22592926 20.68118858
109.04315186 -91.22592926 -17.23601151
140.89094543 -91.22592926 39.29898834
70.25845337 -91.22592926 11.43308830
122.86285400 -91.22592926 -9.30241108
141.27674866 -91.22592926 38.19748688
60.39955139 -91.22592926 6.20598888
60.75455093 -91.22592926 13.10788918
45.21075058 -91.22592926 -12.82401085
111.30505371 -91.22592926 22.86018944
70.31625366 -91.22592926 39.23498535
95.13195038 -91.22592926 16.11838913
84.26914978 -91.22592926 -28.16971207
118.40705109 -91.22592926 39.66049194
77.47235107 -91.22592926 -29.13521194
62.66875076 -91.22592926 41.31218719
67.38145447 -91.22592926 -53.56911469
91.26415253 -91.22592926 -35.44031143
51.53635025 -91.22592926 -47.10671234
131.86094666 -91.22592926 -9.70131111
47.43384933 -91.22592926 29.23618889
49.62995148 -91.22592926 24.88968849
42.12654877 -91.22592926 36.30059052
62.63375092 -91.22592926 37.15969086
113.14434814 -91.22592926 -35.95611191
80.72174835 -91.22592926 4.28878880
57.72494888 -91.22592926 -34.86111069
97.60575104 -91.22592926 -31.45331192
132.91555786 -91.22592926 -45.53250885
104.81005096 -91.22592926 42.04998779
97.79305267 -91.22592926 -36.72640991
73.27535248 -91.22592926 -6.56461143
98.98535156 -91.22592926 -34.86740875
89.13945007 -91.22592926 -12.21131134
55.30955124 -91.22592926 -52.16721344
93.20884705 -91.22592926 38.51278687
127.07064819 -91.22592926 -12.66941071
115.82704926 -91.22592926 10.44168854
66.86765289 -91.22592926 27.37138939
71.17935181 -91.22592926 -11.39631081
88.77455139 -91.22592926 -8.73851109
80.05345154 -91.22592926 -17.78731155
139.25695801 -91.22592926 34.07109070
92.41854858 -91.22592926 -26.31741142
98.34185028 -91.22592926 -56.64281464
80.84474945 -91.22592926 18.44428825
59.99594879 -91.22592926 -11.55921173
123.05314636 -91.22592926 -14.11281204
93.45114899 -91.22592926 -35.95051193
120.58055115 -91.22592926 -49.17881012
114.78504944 -91.22592926 -7.68721151
50.43745041 -91.22592926 -28.10601044
81.75385284 -91.22592926 -14.00041199
127.04084778 -91.22592926 -25.45301056
90.38394928 -91.22592926 -9.87551117
120.78185272 -91.22592926 -25.22061157
86.88014984 -91.22592926 -42.37981415
76.92015076 -91.22592926 22.91928864
110.06725311 -91.22592926 -26.43191147
139.24314880 -91.22592926 -10.34871101
88.03984833 -91.22592926 -5.42391109
81.76115417 -91.22592926 7.81248856
129.58245850 -91.22592926 -21.87181091
126.87574768 -91.22592926 35.91558838
85.22384644 -91.22592926 12.37338829
47.59085083 -91.22592926 -5.99001122
53.87625122 -91.22592926 -53.05251312
54.29335022 -91.22592926 -22.52601242
97.42784882 -91.22592926 -51.34611511
116.26235199 -91.22592926 26.26978874
46.87084961 -91.22592926 -9.08831120
107.89185333 -91.22592926 -23.92941093
104.09525299 -91.22592926 -12.00841141
104.19865417 -91.22592926 -25.44141197
45.85464859 -91.22592926 11.02268791
141.07504272 -91.22592926 33.21528625
121.88615417 -91.22592926 -20.54811096
134.95245361 -91.22592926 9.82558823
105.83104706 -91.22592926 1.07808876
138.82235718 -91.22592926 20.65928841
98.29305267 -91.22592926 -35.41500854
55.22624969 -91.22592926 -53.08441162
136.89665222 -91.22592926 -47.08271027
62.19495010 -91.22592926 16.00228882
129.44364929 -91.22592926 -1.20361137
72.30415344 -91.22592926 0.51468849
97.04105377 -91.22592926 6.96558857
47.42724991 -91.22592926 -21.64731216
139.05825806 -91.22592926 -29.07341194
83.32984924 -91.22592926 -56.56130981
101.64614868 -91.22592926 27.82789040
128.11465454 -91.22592926 -54.90290833
92.54295349 -91.22592926 -34.77171326
121.81665039 -91.22592926 36.64939117
44.99935150 -91.22592926 20.61618805
136.59585571 -91.22592926 38.30789185
93.67745209 -91.22592926 22.54628944
68.50614929 -91.22592926 -32.69811249
68.46165466 -91.22592926 -51.23001099
50.57535172 -91.22592926 25.61318779
80.92144775 -91.22592926 8.80068779
127.50955200 -91.22592926 0.66868877
87.30384827 -91.22592926 10.92198944
119.44674683 -91.22592926 23.10778809
108.24375153 -91.22592926 -29.53091049
122.22875214 -91.22592926 -26.41871071
129.03805542 -91.22592926 -27.52101135
42.13275146 -91.22592926 -27.88521194
42.83314896 -91.22592926 34.05498505
139.40014648 -91.22592926 5.82468891
84.67635345 -91.22592926 1.02478886
67.57215118 -91.22592926 15.04228783
58.83345032 -91.22592926 -17.34381104
105.77275085 -91.22592926 16.94188881
135.02825928 -91.22592926 -23.32121086
129.12155151 -91.22592926 31.32878685
71.13124847 -91.22592926 -41.45541382
128.43244934 -91.22592926 -35.97901154
108.38154602 -91.22592926 39.59858704
87.26744843 -91.22592926 7.58288860
97.11264801 -91.22592926 26.61348915
89.91574860 -91.22592926 -6.44451141
76.09404755 -91.22592926 -2.18141127
123.81825256 -91.22592926 2.85648823
62.34875107 -91.22592926 -1.08401155
44.89384842 -91.22592926 16.84238815
141.78964233 -91.22592926 -16.72801208
136.46244812 -91.22592926 -19.32501221
65.50264740 -91.22592926 -16.36561203
101.55735016 -91.22592926 -17.09581184
90.93064880 -91.22592926 16.79288864
104.60385132 -91.22592926 -15.92981148
70.61285400 -91.22592926 14.12288857
112.67504883 -91.22592926 37.98258972
99.71064758 -91.22592926 13.01588821
54.72624969 -91.22592926 -46.40701294
111.78485107 -91.22592926 -14.56541157
43.93235016 -91.22592926 -3.52201128
63.76834869 -91.22592926 -52.63811493
46.27285004 -91.22592926 -37.51871109
71.98234558 -91.22592926 -33.55200958
61.91165161 -91.22592926 40.77888489
132.96124268 -91.22592926 -2.69531155
78.29765320 -91.22592926 9.52768898
66.06175232 -91.22592926 -6.24441147
114.60905457 -91.22592926 -16.54491043
56.54714966 -91.22592926 41.33058929
128.67814636 -91.22592926 17.89978790
116.21775055 -91.22592926 -37.20201111
74.13735199 -91.22592926 -44.59011078
82.16214752 -91.22592926 10.61538887
77.33425140 -91.22592926 3.98068905
107.31144714 -91.22592926 -52.65650940
60.23414993 -91.22592926 -55.47231293
137.01954651 -91.22592926 11.73418808
121.20355225 -91.22592926 -10.59101105
87.33895111 -91.22592926 -54.38491058
126.81814575 -91.22592926 21.04478836
58.51335144 -91.22592926 -0.08851147
90.37355042 -91.22592926 -0.41741133
94.59504700 -91.22592926 -3.04931116
107.82154846 -91.22592926 -18.32441139
133.67045593 -91.22592926 -8.45901108
47.78775024 -91.22592926 32.61558533
52.16395187 -91.22592926 15.11968803
83.83415222 -91.22592926 27.83948708
88.24645233 -91.22592926 -14.32851124
76.69145203 -91.22592926 -39.91181183
52.31914902 -91.22592926 -50.73261261
121.56964874 -91.22592926 -28.72591209
81.50514984 -91.22592926 42.26708984
66.61395264 -91.22592926 4.65028858
48.69345093 -91.22592926 -25.35161209
56.12924957 -91.22592926 -7.92001152
67.17665100 -91.22592926 -47.84281158
88.79325104 -91.22592926 -5.11231136
71.24884796 -91.22592926 -12.94391155
58.61225128 -91.22592926 -53.71661377
42.12594986 -91.22592926 -12.21741104
131.73904419 -91.22592926 20.22208786
138.49914551 -91.22592926 -53.05551147
76.36154938 -91.22592926 25.78108788
44.36624908 -91.22592926 11.26408768
49.01795197 -91.22592926 11.45038795
140.81285095 -91.22592926 -49.98661041
130.02815247 -91.22592926 27.33098793
57.47455215 -91.22592926 -29.57091141
55.14035034 -91.22592926 41.77259064
94.49255371 -91.22592926 18.85368919
131.72424316 -91.22592926 -35.54291153
108.07724762 -91.22592926 0.91488838
131.26045227 -91.22592926 -7.31511116
59.12345123 -91.22592926 -11.96931076
90.72554779 -91.22592926 19.79498863
49.69414902 -91.22592926 -9.57121086
96.30515289 -91.22592926 -54.38471222
106.18185425 -91.22592926 33.03238678
131.54025269 -91.22592926 -38.09770966
53.04954910 -91.22592926 -25.41481209
93.29624939 -91.22592926 -1.44301128
112.60494995 -91.22592926 -1.34501123
115.44805145 -91.22592926 -39.81681061
131.05674744 -91.22592926 -41.61501312
93.20674896 -91.22592926 -12.40591145
100.03144836 -91.22592926 -17.05721092
42.62535095 -91.22592926 30.93818855
62.97444916 -91.22592926 -22.62461090
82.70594788 -91.22592926 39.59488678
141.44505310 -91.22592926 -12.08961105
120.88825226 -91.22592926 15.78598785
120.56195068 -91.22592926 32.48948669
112.45165253 -91.22592926 0.37938881
114.30445099 -91.22592926 -28.04101181
60.54434967 -91.22592926 -52.08901215
51.16455078 -91.22592926 -1.58261156
122.93655396 -91.22592926 -53.96391296
91.17955017 -91.22592926 -20.08781052
80.78814697 -91.22592926 -31.42271233
131.12385559 -91.22592926 -41.68681335
48.58655167 -91.22592926 29.01778984
74.01725006 -91.22592926 -11.87311172
128.45645142 -91.22592926 -53.32581329
83.68495178 -91.22592926 -16.48651123
80.85684967 -91.22592926 33.75759125
57.73775101 -91.22592926 8.21158886
115.16384888 -91.22592926 0.61898851
87.85865021 -91.22592926 -3.22781134
59.93244934 -91.22592926 -26.07991219
60.70975113 -91.22592926 31.18488884
78.02925110 -91.22592926 25.43688774
84.56385040 -91.22592926 -41.03461456
99.43975067 -91.22592926 -26.37431145
87.44125366 -91.22592926 28.04028893
104.50045013 -91.22592926 -16.94001007
44.97885132 -91.22592926 -17.22921181
135.38015747 -91.22592926 37.39048767
99.47624969 -91.22592926 29.09858894
71.97904968 -91.22592926 -10.29761124
109.27905273 -91.22592926 18.26778793
60.17065048 -91.22592926 -29.93931198
84.42825317 -91.22592926 -10.12141132
101.18444824 -91.22592926 34.44288635
135.75744629 -91.22592926 27.28048897
141.76515198 -91.22592926 -34.17021179
97.97875214 -91.22592926 40.94098663
101.76544952 -91.22592926 -9.17771149
105.20784760 -91.22592926 -5.65211153
100.11495209 -91.22592926 -30.18691063
126.88684845 -91.22592926 -51.38600922
110.59664917 -91.22592926 -21.76531219
60.49494934 -91.22592926 27.84438896
96.29855347 -91.22592926 -7.87901115
76.92964935 -91.22592926 42.40689087
126.48684692 -91.22592926 -45.28981018
71.68955231 -91.22592926 -44.92091370
76.40215302 -91.22592926 -40.99790955
45.78195190 -91.22592926 21.05468941
94.02304840 -91.22592926 -56.47930908
117.76544952 -91.22592926 19.74338913
102.69734955 -91.22592926 -2.44271135
85.11454773 -91.22592926 41.54608917
84.71665192 -91.22592926 41.55568695
103.31825256 -91.22592926 -23.25581169
104.66355133 -91.22592926 24.92788887
90.16224670 -91.22592926 28.95528984
64.55535126 -91.22592926 37.75268555
91.12384796 -91.22592926 -46.82260895
44.61505127 -91.22592926 3.42308903
98.79485321 -91.22592926 39.44488525
109.17784882 -91.22592926 -40.73960876
91.10974884 -91.22592926 -47.03951263
138.42774963 -91.22592926 -8.24161148
119.85195160 -91.22592926 11.67898941
108.06095123 -91.22592926 -6.92021132
124.05595398 -91.22592926 -37.27911377
140.05694580 -91.22592926 -39.12431335
77.60725403 -91.22592926 8.03538895
129.72465515 -91.22592926 -28.16261101
130.93594360 -91.22592926 14.55678940
63.84124756 -91.22592926 -16.49371147
72.75354767 -91.22592926 2.39648819
98.70525360 -91.22592926 10.40918922
73.58895111 -91.22592926 -14.23681068
109.60134888 -91.22592926 39.15959167
95.58174896 -91.22592926 22.08958817
55.84564972 -91.22592926 -31.78251076
140.25544739 -91.22592926 -5.59671116
111.42575073 -91.22592926 -52.80841064
122.04274750 -91.22592926 -56.31900787
79.84075165 -91.22592926 42.63608551
88.54225159 -91.22592926 41.08088684
80.14295197 -91.22592926 -30.47191048
44.96955109 -91.22592926 -7.53511143
53.29214859 -91.22592926 -13.89861107
138.53784180 -91.22592926 3.93298817
66.34494781 -91.22592926 -47.93450928
116.78535461 -91.22592926 -39.42781067
71.09545135 -91.22592926 -10.21321106
68.49984741 -91.22592926 -32.08721161
123.58674622 -91.22592926 -34.79180908
111.26065063 -91.22592926 9.59428787
75.00735474 -91.22592926 37.18299103
138.12744141 -91.22592926 -32.88101196
46.32234955 -91.22592926 33.92888641
56.98305130 -91.22592926 25.96578789
77.90205383 -91.22592926 -26.26901054
95.00714874 -91.22592926 -15.83461094
79.47575378 -91.22592926 24.83119011
95.92455292 -91.22592926 -56.22190857
136.85275269 -91.22592926 -48.15621185
125.66764832 -91.22592926 36.43458557
83.86865234 -91.22592926 38.52748871
87.73124695 -91.22592926 -26.56201172
77.04145050 -91.22592926 -48.75431061
131.45684814 -91.22592926 -25.65101051
48.67675018 -91.22592926 -8.21841145
67.65035248 -91.22592926 7.52418900
116.13615417 -91.22592926 -45.71520996
72.04215240 -91.22592926 -16.48451233
109.93104553 -91.22592926 1.06188869
52.12805176 -91.22592926 19.70218849
130.28344727 -91.22592926 -1.34801149
89.28894806 -91.22592926 -12.48241138
101.66004944 -91.22592926 40.03598785
128.69445801 -91.22592926 -7.19161129
132.42584229 -91.22592926 -40.36911011
138.48234558 -91.22592926 -22.17771149
94.34985352 -91.22592926 -28.78781128
136.69775391 -91.22592926 -13.06181145
92.44824982 -91.22592926 -20.88611221
128.41764832 -91.22592926 -19.82631111
126.58605194 -91.22592926 -26.59711075
138.53494263 -91.22592926 -42.95341492
127.24894714 -91.22592926 -30.39441109
56.39575195 -91.22592926 -11.62961197
47.88245010 -91.22592926 23.05738831
110.20214844 -91.22592926 -53.09220886
61.71405029 -91.22592926 -28.21751213
74.64744568 -91.22592926 -53.47251129
85.44384766 -91.22592926 11.05188942
115.13414764 -91.22592926 -31.25691223
128.02595520 -91.22592926 -43.04891205
49.49264908 -91.22592926 -2.14301157
109.29464722 -91.22592926 30.41588783
77.68875122 -91.22592926 14.78438950
50.10134888 -91.22592926 41.53528595
118.80024719 -91.22592926 19.17058945
126.09625244 -91.22592926 -9.97861099
82.96264648 -91.22592926 -31.52301216
51.30464935 -91.22592926 25.19948769
119.30564880 -91.22592926 10.79568863
101.54814911 -91.22592926 -29.22031212
91.39174652 -91.22592926 6.73328876
102.19715118 -91.22592926 -17.38641167
124.20155334 -91.22592926 23.48178864
81.41404724 -91.22592926 -7.47231150
141.10745239 -91.22592926 -31.70871162
86.70335388 -91.22592926 -42.86051178
129.96835327 -91.22592926 28.70339012
136.47674561 -91.22592926 -39.53371429
59.76324844 -91.22592926 -47.16880798
121.73265076 -91.22592926 -39.35791016
71.21875000 -91.22592926 -24.13941193
67.34515381 -91.22592926 -21.47091103
130.11624146 -91.22592926 -17.62621117
79.56774902 -91.22592926 -17.93031120
79.07624817 -91.22592926 -24.66241074
85.27175140 -91.22592926 -4.44261169
64.72914886 -91.22592926 -46.15501404
58.84334946 -91.22592926 0.45648861
108.25094604 -91.22592926 -26.41721153
127.64804840 -91.22592926 -19.70181274
89.12554932 -91.22592926 -38.90061188
91.26155090 -91.22592926 -23.09411240
98.99404907 -91.22592926 20.65288925
48.34555054 -91.22592926 -1.34681129
57.85354996 -91.22592926 -56.12811279
123.14205170 -91.22592926 34.68209076
136.44784546 -91.22592926 -29.55991173
50.25645065 -91.22592926 -46.44001007
66.79194641 -91.22592926 -13.15331078
86.16825104 -91.22592926 26.09478951
141.41094971 -91.22592926 40.51938629
47.05025101 -91.22592926 -33.91110992
52.62025070 -91.22592926 25.01718712
46.14645004 -91.22592926 11.87478828
63.77065277 -91.22592926 -38.42281342
105.42224884 -91.22592926 -54.22351074
128.94125366 -91.22592926 32.25348663
42.46834946 -91.22592926 -31.55731201
66.01394653 -91.22592926 4.45128822
68.34175110 -91.22592926 -50.55561066
97.48515320 -91.22592926 -36.84611130
105.51805115 -91.22592926 28.17088890
59.61534882 -91.22592926 42.69668579
74.15045166 -91.22592926 -46.37950897
111.99725342 -91.22592926 -3.36531138
79.23165131 -91.22592926 -40.23441315
61.55694962 -91.22592926 -41.19351196
127.84495544 -91.22592926 32.32128906
90.98114777 -91.22592926 -51.37290955
79.32424927 -91.22592926 -23.72241211
44.86954880 -91.22592926 -45.99871063
79.93434906 -91.22592926 8.31568909
121.54875183 -91.22592926 -34.14070892
84.69674683 -91.22592926 -52.15681458
112.32444763 -91.22592926 -33.25221252
48.69924927 -91.22592926 -22.72341156
81.41555023 -91.22592926 0.74868870
77.52265167 -91.22592926 -48.06700897
72.88925171 -91.22592926 -42.40141296
81.94895172 -91.22592926 -10.55971146
138.46224976 -91.22592926 34.47969055
107.23774719 -91.22592926 -26.79861069
117.83125305 -91.22592926 -33.64691162
119.25375366 -91.22592926 -25.18881226
102.47485352 -91.22592926 -43.11491394
46.34865189 -91.22592926 30.79838753
75.39344788 -91.22592926 -23.22851181
61.39685059 -91.22592926 14.59788895
118.01245117 -91.22592926 -2.00871134
69.95465088 -91.22592926 3.12328815
64.32514954 -91.22592926 25.63408852
46.33914948 -91.22592926 -44.61421204
71.73034668 -91.22592926 -7.26141119
84.65534973 -91.22592926 25.23278999
93.31565094 -91.22592926 -40.83501434
46.27814865 -91.22592926 -49.97721100
124.54565430 -91.22592926 -34.87601089
71.16075134 -91.22592926 0.99648857
54.87945175 -91.22592926 15.71498871
106.97824860 -91.22592926 -29.21321106
113.04814911 -91.22592926 -47.59690857
48.90724945 -91.22592926 8.02788830
55.16135025 -91.22592926 40.21328735
82.06815338 -91.22592926 32.05709076
114.92874908 -91.22592926 11.73138809
59.82365036 -91.22592926 -41.10910797
85.20255280 -91.22592926 5.29288864
104.48034668 -91.22592926 -16.46881104
59.80445099 -91.22592926 9.90288925
72.71704865 -91.22592926 28.84458733
123.44425201 -91.22592926 -52.95461273
118.26235199 -91.22592926 -21.62741089
111.21534729 -91.22592926 -3.38621140
59.22095108 -91.22592926 33.77318573
139.42614746 -91.22592926 22.45688820
87.08255005 -91.22592926 21.55558777
130.02484131 -91.22592926 -49.80001068
67.46174622 -91.22592926 30.35558891
82.62605286 -91.22592926 25.96158791
112.32755280 -91.22592926 -9.68761158
83.32814789 -91.22592926 -2.73951149
115.60755157 -91.22592926 -47.93280792
53.34605026 -91.22592926 -21.04491043
46.23944855 -91.22592926 10.39458847
77.23265076 -91.22592926 32.53058624
139.10604858 -91.22592926 14.26218796
136.68695068 -91.22592926 23.99698830
97.00005341 -91.22592926 -34.68181229
53.07505035 -91.22592926 -37.76850891
48.84885025 -91.22592926 -53.38481140
126.69584656 -91.22592926 8.29638863
51.81885147 -91.22592926 -24.73251152
85.70664978 -91.22592926 12.38408852
92.34075165 -91.22592926 -33.10430908
118.04965210 -91.22592926 11.31828880
84.30825043 -91.22592926 26.36258888
106.94235229 -91.22592926 -11.70611191
117.63445282 -91.22592926 -35.39311218
88.00035095 -91.22592926 10.65638924
58.14345169 -91.22592926 -32.69961166
86.92814636 -91.22592926 -12.82761192
66.85044861 -91.22592926 0.33668852
140.87315369 -91.22592926 -51.72861481
83.77235413 -91.22592926 -0.80941153
122.56335449 -91.22592926 27.02939034
119.76985168 -91.22592926 34.28598785
100.57914734 -91.22592926 1.69828892
74.85655212 -91.22592926 -28.99371147
95.52815247 -91.22592926 -48.22231293
82.93284607 -91.22592926 16.59428787
103.09024811 -91.22592926 15.71288872
49.87585068 -91.22592926 -35.63861084
78.46534729 -91.22592926 -40.86211395
61.62895203 -91.22592926 15.28238869
82.81214905 -91.22592926 -9.82351112
115.13334656 -91.22592926 12.95278931
116.80265045 -91.22592926 -16.18501091
109.22294617 -91.22592926 19.74708939
87.86795044 -91.22592926 -46.98490906
141.87774658 -91.22592926 -34.06171417
50.56755066 -91.22592926 -19.21201134
78.95645142 -91.22592926 -25.46181107
134.19505310 -91.22592926 -56.55441284
60.10005188 -91.22592926 7.26028824
66.60784912 -91.22592926 23.15068817
96.20954895 -91.22592926 -2.18751144
97.29295349 -91.22592926 -10.72921181
88.50614929 -91.22592926 -10.15021133
81.13514709 -91.22592926 -31.02921104
127.78535461 -91.22592926 -55.13211060
125.17675018 -91.22592926 -38.62521362
56.62844849 -91.22592926 42.78168488
100.03524780 -91.22592926 -26.40621185
95.79875183 -91.22592926 37.76568604
111.21234894 -91.22592926 -17.99521255
57.53134918 -91.22592926 -2.75871134
53.02185059 -91.22592926 26.87238884
65.11045074 -91.22592926 14.78178787
59.40364838 -91.22592926 -53.82431030
116.08934784 -91.22592926 -3.29501128
94.85165405 -91.22592926 24.21518898
59.05595016 -91.22592926 4.55638885
95.28095245 -91.22592926 -28.23941231
73.92835236 -91.22592926 -18.74841118
125.89364624 -91.22592926 0.21668863
81.90115356 -91.22592926 -21.90121078
124.44744873 -91.22592926 -51.71771240
62.67925262 -91.22592926 -22.77501106
89.78105164 -91.22592926 -6.88671160
43.00355148 -91.22592926 3.97108841
49.91604996 -91.22592926 -1.73481131
60.14215088 -91.22592926 4.58808899
73.71965027 -91.22592926 10.71748924
139.72254944 -91.22592926 31.35568810
111.80345154 -91.22592926 20.89858818
98.99314880 -91.22592926 -9.01431179
135.20944214 -91.22592926 -39.78141022
52.19454956 -91.22592926 11.48028946
58.66135025 -91.22592926 38.04268646
132.54214478 -91.22592926 13.33338928
103.95214844 -91.22592926 -41.63381195
90.49275208 -91.22592926 8.16268826
-23.45079994 -15.48169994 0.00000000
20.64629936 -47.72900009 0.00000000
-7.23089981 -20.68810081 0.00000000
14.51879978 3.35260010 0.00000000
2.85220003 7.94110012 0.00000000
6.61180019 7.04129982 0.00000000
42.33179855 -27.74640083 0.00000000
43.49100113 37.32320023 0.00000000
21.69230080 -37.61909866 0.00000000
-4.72679996 -4.60279989 0.00000000
35.78160095 8.87189960 0.00000000
-1.65480006 16.43810081 0.00000000
-37.12469864 -23.84930038 0.00000000
-3.20040011 11.72980022 0.00000000
-3.74070001 -46.76250076 0.00000000
22.36940002 26.77779961 0.00000000
-33.06370163 18.99799919 0.00000000
-26.46269989 1.73539996 0.00000000
-26.61809921 -18.06279945 0.00000000
-16.81970024 -26.70809937 0.00000000
-41.89030075 16.81609917 0.00000000
-48.87599945 -0.91090000 0.00000000
-23.16749954 -14.66259956 0.00000000
25.04409981 39.48120117 0.00000000
2.10630012 -4.31080008 0.00000000
-49.10440063 5.99660015 0.00000000
-0.43370000 18.94070053 0.00000000
-36.17689896 -13.16819954 0.00000000
47.40810013 -33.02439880 0.00000000
36.93500137 -23.77309990 0.00000000
-26.92849922 0.72350001 0.00000000
-18.48080063 -40.26020050 0.00000000
4.04059982 24.89629936 0.00000000
-30.90089989 -0.29290000 0.00000000
-9.13980007 42.79410172 0.00000000
-11.65709972 -33.68809891 0.00000000
45.75180054 -5.66499996 0.00000000
4.21759987 -24.73270035 0.00000000
49.45029831 48.25120163 0.00000000
16.38999939 18.45009995 0.00000000
-49.49860001 19.35079956 0.00000000
-2.58920002 -10.63379955 0.00000000
7.92859983 19.67469978 0.00000000
39.46110153 35.21689987 0.00000000
17.71330070 -33.71820068 0.00000000
8.26819992 -30.17480087 0.00000000
-37.23210144 24.90710068 0.00000000
-11.45530033 -30.05859947 0.00000000
-11.64220047 -48.94189835 0.00000000
-25.92519951 23.31500053 0.00000000
-2.88520002 -17.19919968 0.00000000
-17.64690018 23.46209908 0.00000000
14.31299973 9.54720020 0.00000000
-22.79439926 -49.97850037 0.00000000
12.64089966 7.26590014 0.00000000
37.24119949 -3.41899991 0.00000000
-29.01790047 15.47729969 0.00000000
-14.65820026 16.72150040 0.00000000
43.60039902 -23.92130089 0.00000000
-49.02819824 -12.05300045 0.00000000
-33.22729874 -44.38750076 0.00000000
-47.92079926 -5.66849995 0.00000000
-48.67630005 -5.99639988 0.00000000
-36.88899994 -28.04070091 0.00000000
-32.12509918 7.60160017 0.00000000
-36.89020157 34.76620102 0.00000000
6.57460022 -47.37900162 0.00000000
29.43989944 44.23160172 0.00000000
-8.03320026 -49.26829910 0.00000000
-33.66870117 31.23749924 0.00000000
-31.44919968 46.31529999 0.00000000
-4.64139986 27.54969978 0.00000000
-37.30239868 -45.74900055 0.00000000
-38.62870026 -1.64619994 0.00000000
-39.10779953 28.55990028 0.00000000
10.98999977 44.52989960 0.00000000
-32.00830078 9.68649960 0.00000000
22.43440056 -43.05799866 0.00000000
23.04570007 -45.73720169 0.00000000
12.58419991 -21.95400047 0.00000000
-23.44980049 -0.19329999 0.00000000
-10.46380043 -36.31280136 0.00000000
-46.31549835 -23.82130051 0.00000000
22.01740074 -7.45260000 0.00000000
35.14459991 22.15200043 0.00000000
-38.17860031 45.14970016 0.00000000
-10.24149990 49.60549927 0.00000000
6.29629993 31.74220085 0.00000000
27.35969925 47.66180038 0.00000000
-21.91480064 -42.81850052 0.00000000
-33.39339828 46.08409882 0.00000000
48.30519867 1.84990001 0.00000000
45.32740021 48.33509827 0.00000000
37.77489853 7.53579998 0.00000000
-6.05800009 -20.32550049 0.00000000
18.77309990 -19.07250023 0.00000000
41.27009964 -12.59580040 0.00000000
41.77249908 21.69619942 0.00000000
46.49269867 -12.69639969 0.00000000
36.17160034 -38.69409943 0.00000000
-2.66610003 -13.75780010 0.00000000
-43.29809952 -35.45069885 0.00000000
-3.64549994 -47.46350098 0.00000000
19.47750092 17.78540039 0.00000000
29.33609962 -35.82049942 0.00000000
-26.40250015 -46.93500137 0.00000000
31.49220085 -21.71080017 0.00000000
-29.71969986 7.94850016 0.00000000
29.61720085 3.57870007 0.00000000
-37.40209961 7.90229988 0.00000000
-41.68280029 31.33810043 0.00000000
29.51070023 -23.68269920 0.00000000
-42.66889954 25.12120056 0.00000000
-45.21860123 3.78590012 0.00000000
-1.70780003 -37.48529816 0.00000000
7.00209999 25.07609940 0.00000000
-8.06750011 20.32789993 0.00000000
10.23929977 -33.52840042 0.00000000
15.02869987 32.15840149 0.00000000
33.20999908 -43.09560013 0.00000000
41.03630066 0.99339998 0.00000000
5.52619982 12.04959965 0.00000000
13.84889984 30.90719986 0.00000000
29.99799919 -2.55909991 0.00000000
-35.78720093 -42.99029922 0.00000000
-35.67919922 20.12290001 0.00000000
-42.88000107 10.37370014 0.00000000
12.03079987 -17.90060043 0.00000000
-23.27919960 -37.97589874 0.00000000
-29.80690002 -6.94019985 0.00000000
47.93690109 -15.09329987 0.00000000
-21.81329918 -44.54190063 0.00000000
-8.16049957 -45.07979965 0.00000000
24.83200073 26.24469948 0.00000000
-38.86729813 44.29539871 0.00000000
-29.51770020 3.81209993 0.00000000
14.53999996 -37.39649963 0.00000000
-16.23170090 15.82499981 0.00000000
27.84300041 17.82509995 0.00000000
40.67750168 36.91740036 0.00000000
-32.36629868 -16.15309906 0.00000000
-3.84739995 -4.16520023 0.00000000
26.42799950 13.80189991 0.00000000
-44.08319855 -8.98750019 0.00000000
9.54179955 21.91139984 0.00000000
-49.39500046 6.34040022 0.00000000
36.79750061 40.30110168 0.00000000
13.67090034 -9.92790031 0.00000000
-13.01920033 49.08039856 0.00000000
28.04050064 9.09799957 0.00000000
-5.47669983 -28.45120049 0.00000000
47.89220047 9.57989979 0.00000000
3.88700008 -39.01689911 0.00000000
38.51290131 -13.03929996 0.00000000
14.58370018 37.15179825 0.00000000
-48.59400177 -13.48840046 0.00000000
38.21770096 -36.34349823 0.00000000
30.08889961 -45.07049942 0.00000000
26.87960052 -48.49679947 0.00000000
25.18269920 16.29010010 0.00000000
42.73419952 -0.58510000 0.00000000
-0.53380001 -40.45880127 0.00000000
49.13850021 43.96939850 0.00000000
-16.42749977 40.27799988 0.00000000
3.19810009 49.32419968 0.00000000
12.34420013 -48.68500137 0.00000000
9.98560047 20.71789932 0.00000000
18.76650047 10.99829960 0.00000000
34.10749817 23.33760071 0.00000000
-20.63669968 11.96450043 0.00000000
-47.61880112 -6.16709995 0.00000000
23.21879959 -44.08520126 0.00000000
-22.44330025 16.64769936 0.00000000
-30.93090057 12.47259998 0.00000000
-19.79660034 -30.68759918 0.00000000
39.87789917 29.01300049 0.00000000
-25.46190071 -34.90499878 0.00000000
47.51860046 5.87069988 0.00000000
-49.42670059 -7.04430008 0.00000000
34.46609879 20.69799995 0.00000000
35.21699905 12.21899986 0.00000000
36.35670090 30.45800018 0.00000000
34.90940094 -23.56529999 0.00000000
-46.62900162 -12.76319981 0.00000000
-22.61730003 9.45199966 0.00000000
-4.66650009 -34.40969849 0.00000000
19.91230011 -9.90320015 0.00000000
-22.29500008 0.60650003 0.00000000
-33.91149902 37.88930130 0.00000000
34.22190094 -1.75730002 0.00000000
36.37440109 -14.95470047 0.00000000
31.48380089 24.56649971 0.00000000
-33.22689819 -7.99949980 0.00000000
38.01760101 -40.85380173 0.00000000
47.44680023 36.91579819 0.00000000
-18.39049911 13.36260033 0.00000000
44.86830139 -38.72129822 0.00000000
-20.03380013 22.69059944 0.00000000
-20.36289978 -35.58729935 0.00000000
-22.22369957 44.61629868 0.00000000
-7.59410000 30.05949974 0.00000000
42.16820145 -46.20040131 0.00000000
-37.13710022 -39.40639877 0.00000000
-48.05379868 -19.62109947 0.00000000
25.89529991 -48.61589813 0.00000000
25.61459923 -29.10860062 0.00000000
-10.87940025 4.84320021 0.00000000
39.62910080 0.84630001 0.00000000
-3.33719993 18.15099907 0.00000000
-31.52020073 -43.48329926 0.00000000
-7.07719994 -29.34070015 0.00000000
-14.14019966 -10.82409954 0.00000000
16.88100052 -27.04840088 0.00000000
27.32469940 -42.07089996 0.00000000
32.12590027 12.30459976 0.00000000
18.95319939 -27.63170052 0.00000000
-27.88660049 17.01950073 0.00000000
-11.02970028 -1.97549999 0.00000000
-17.84210014 27.62109947 0.00000000
-31.74659920 -33.69919968 0.00000000
24.34300041 -19.07519913 0.00000000
-12.63910007 -22.59639931 0.00000000
-29.37249947 -21.21139908 0.00000000
26.96360016 -46.86169815 0.00000000
1.97280002 -29.24559975 0.00000000
-47.57339859 49.42890167 0.00000000
44.64939880 1.68750000 0.00000000
40.80609894 20.10530090 0.00000000
11.53859997 38.59870148 0.00000000
33.73540115 28.56959915 0.00000000
-47.35639954 -25.50160027 0.00000000
-14.54660034 4.20699978 0.00000000
-15.51809978 -14.92669964 0.00000000
34.08069992 13.34169960 0.00000000
-5.48199987 28.62389946 0.00000000
12.36470032 3.13150001 0.00000000
43.60889816 8.01710033 0.00000000
24.30459976 25.61269951 0.00000000
39.52989960 9.32139969 0.00000000
14.25549984 38.97420120 0.00000000
32.02030182 -33.64970016 0.00000000
-2.69120002 -7.50909996 0.00000000
-45.82659912 16.28230095 0.00000000
-37.76100159 -26.70999908 0.00000000
-31.99180031 -37.10580063 0.00000000
1.17659998 32.37799835 0.00000000
43.21419907 45.16329956 0.00000000
14.52009964 2.87730002 0.00000000
-1.46959996 19.79360008 0.00000000
-22.00849915 9.56890011 0.00000000
3.97690010 17.79920006 0.00000000
-7.12109995 -41.25960159 0.00000000
24.09079933 43.47140121 0.00000000
-28.42420006 -10.56110001 0.00000000
-35.67760086 14.86060047 0.00000000
3.28909993 -19.18980026 0.00000000
3.73559999 -10.95269966 0.00000000
23.26969910 42.80759811 0.00000000
28.05260086 42.26589966 0.00000000
13.78940010 -27.38689995 0.00000000
-32.01190186 37.40700150 0.00000000
29.21150017 -29.88269997 0.00000000
21.91950035 -13.77019978 0.00000000
-3.26390004 -34.08649826 0.00000000
-2.60560012 -33.15449905 0.00000000
3.48079991 -14.17420006 0.00000000
-10.65950012 -3.15330005 0.00000000
21.18670082 -6.96810007 0.00000000
-32.34629822 -5.02869987 0.00000000
48.45959854 46.43420029 0.00000000
-27.54369926 40.67309952 0.00000000
48.40050125 -8.07170010 0.00000000
48.00619888 12.24470043 0.00000000
35.54240036 14.12380028 0.00000000
-12.53279972 38.41569901 0.00000000
-4.32070017 -12.70559978 0.00000000
-6.66739988 -40.21910095 0.00000000
2.23449993 21.41449928 0.00000000
3.11319995 33.07279968 0.00000000
35.08150101 -0.72630000 0.00000000
-28.91020012 -33.03430176 0.00000000
-10.40299988 26.21699905 0.00000000
-0.89389998 -17.76140022 0.00000000
30.67670059 -45.44160080 0.00000000
37.41070175 -5.13110018 0.00000000
48.68719864 43.70560074 0.00000000
-39.89149857 43.12839890 0.00000000
-38.98820114 -44.55160141 0.00000000
18.65309906 -23.77610016 0.00000000
22.51560020 9.21660042 0.00000000
36.67100143 -41.79109955 0.00000000
38.53499985 38.81250000 0.00000000
-9.42940044 19.04420090 0.00000000
-7.33349991 -45.05979919 0.00000000
-2.04539990 -10.83520031 0.00000000
18.99029922 -23.47999954 0.00000000
-29.83419991 -28.61639977 0.00000000
-4.31669998 -17.70890045 0.00000000
46.04759979 44.02009964 0.00000000
34.13769913 31.22100067 0.00000000
-17.42350006 -27.83029938 0.00000000
16.04549980 -29.54859924 0.00000000
-24.96080017 25.86479950 0.00000000
-39.26279831 -12.69349957 0.00000000
-16.96719933 -17.50909996 0.00000000
-8.38420010 37.60120010 0.00000000
14.13609982 15.88630009 0.00000000
20.69370079 -12.95899963 0.00000000
-3.40280008 34.20299911 0.00000000
18.65810013 46.12020111 0.00000000
36.72750092 18.40390015 0.00000000
-3.22589993 23.93510056 0.00000000
17.11160088 12.39649963 0.00000000
24.69799995 -45.89609909 0.00000000
22.26910019 23.10969925 0.00000000
-21.47340012 -48.58729935 0.00000000
-29.62299919 11.85490036 0.00000000
3.75009990 -5.95989990 0.00000000
5.35209990 -14.68019962 0.00000000
18.51000023 13.06400013 0.00000000
-15.77009964 -15.26280022 0.00000000
47.39450073 8.01970005 0.00000000
-11.67370033 -21.45560074 0.00000000
7.45760012 -47.07469940 0.00000000
49.81579971 41.44200134 0.00000000
-2.08200002 -0.72670001 0.00000000
-47.94189835 43.21260071 0.00000000
3.61120009 14.65040016 0.00000000
-37.19129944 -23.85860062 0.00000000
14.23849964 16.07150078 0.00000000
42.67520142 29.06520081 0.00000000
46.36859894 41.09460068 0.00000000
-40.02709961 -49.03670120 0.00000000
41.73160172 -31.19459915 0.00000000
12.33240032 -30.14489937 0.00000000
0.30059999 24.74909973 0.00000000
-43.15330124 20.88170052 0.00000000
-41.55239868 -25.93790054 0.00000000
-42.01300049 -27.60379982 0.00000000
-47.14659882 36.34370041 0.00000000
-30.70999908 -0.57520002 0.00000000
-23.54789925 11.03139973 0.00000000
1.71650004 48.01169968 0.00000000
29.36339951 44.04280090 0.00000000
-47.81570053 -19.53389931 0.00000000
-16.02519989 25.01939964 0.00000000
24.25370026 18.79990005 0.00000000
1.61210001 45.48849869 0.00000000
-29.44809914 -39.73860168 0.00000000
43.51020050 -14.52330017 0.00000000
26.53350067 5.02629995 0.00000000
33.56280136 31.19630051 0.00000000
1.97950006 31.31270027 0.00000000
-44.96360016 -0.63819999 0.00000000
23.43050003 11.41880035 0.00000000
31.43210030 -40.95429993 0.00000000
-24.32880020 -16.83250046 0.00000000
-25.14200020 -6.03219986 0.00000000
8.80519962 -46.67520142 0.00000000
36.00619888 17.85560036 0.00000000
12.45110035 -8.24600029 0.00000000
-27.01440048 2.82380009 0.00000000
2.35369992 13.30440044 0.00000000
-8.29119968 16.87150002 0.00000000
16.38769913 29.55999947 0.00000000
-3.56699991 -8.17319965 0.00000000
-8.17440033 27.92799950 0.00000000
-3.78080010 37.11589813 0.00000000
-7.80009985 -36.08110046 0.00000000
3.67960000 -40.72589874 0.00000000
-48.84170151 -2.90759993 0.00000000
-49.45640182 4.23479986 0.00000000
-24.41799927 39.27690125 0.00000000
-29.15990067 -22.42040062 0.00000000
41.54000092 21.49049950 0.00000000
8.54520035 24.06040001 0.00000000
-48.69530106 -35.39500046 0.00000000
36.40110016 40.86740112 0.00000000
19.38349915 -20.40839958 0.00000000
-10.27770042 4.57040024 0.00000000
-30.09090042 33.03290176 0.00000000
-46.36959839 38.15010071 0.00000000
12.82670021 -30.17009926 0.00000000
-3.88689995 -48.97689819 0.00000000
24.64240074 -47.92330170 0.00000000
-42.69160080 17.61689949 0.00000000
30.35729980 -1.93289995 0.00000000
-11.59280014 -23.03219986 0.00000000
25.06320000 -48.89929962 0.00000000
41.00180054 -18.08889961 0.00000000
-5.55310011 -0.85769999 0.00000000
-42.13579941 22.77700043 0.00000000
19.67119980 20.04350090 0.00000000
-13.29380035 20.66990089 0.00000000
-40.58359909 -44.87459946 0.00000000
-30.03089905 8.54039955 0.00000000
-7.54010010 -37.88190079 0.00000000
5.59259987 41.36029816 0.00000000
-12.34430027 49.80870056 0.00000000
42.48009872 -9.98089981 0.00000000
6.21960020 -47.95299911 0.00000000
10.22760010 5.88700008 0.00000000
39.75590134 -14.07069969 0.00000000
19.36129951 -7.53219986 0.00000000
-6.69320011 -19.62150002 0.00000000
-7.86499977 5.77299976 0.00000000
45.27640152 -0.82220000 0.00000000
-12.61470032 6.51310015 0.00000000
26.19989967 26.13249969 0.00000000
18.59950066 -49.16899872 0.00000000
-13.68260002 -39.06560135 0.00000000
-12.52719975 -19.06189919 0.00000000
18.42160034 42.49319839 0.00000000
41.05210114 -21.59429932 0.00000000
25.44289970 -26.50399971 0.00000000
-16.37859917 -6.42609978 0.00000000
20.44659996 44.74739838 0.00000000
36.85960007 -8.09480000 0.00000000
-17.17320061 42.48210144 0.00000000
-24.81550026 45.40129852 0.00000000
-23.95499992 24.53529930 0.00000000
34.83150101 -34.90219879 0.00000000
-20.75729942 33.27299881 0.00000000
-31.04750061 3.54749990 0.00000000
-18.77350044 -49.52930069 0.00000000
