32.9355 -37.6199 16.3132
-22.8509 -44.4729 -44.4830
35.1187 -35.5904 -44.4770
23.7963 43.9742 -15.4760
-27.3627 41.8483 41.4407
5.3557 49.7123 -1.6483
17.5507 -46.8185 -41.5846
32.1858 -38.2633 -28.1747
-48.1532 -13.4637 41.3622
10.3519 48.9166 -39.2328
-36.9059 33.7336 -13.6664
-44.0979 23.5665 -20.0919
20.0913 45.7858 -16.3386
-40.5185 29.2959 -43.3582
-10.7269 48.8358 25.6982
47.1888 16.5293 49.9936
49.4137 -7.6344 27.9774
-39.5714 30.5631 -49.6282
-50.0000 -0.0327 -11.2891
-17.5532 46.8176 -28.2651
-41.1007 28.4734 13.2182
-49.7107 -5.3707 -44.0050
-15.4356 -47.5578 -2.6808
19.1450 46.1895 -10.7616
27.5619 41.7174 -34.8581
-45.7738 20.1186 -2.3698
48.6552 11.5181 -3.3735
31.6130 -38.7378 3.2420
-45.0082 21.7776 -45.7328
-1.3844 -49.9808 22.4580
34.0972 -36.5702 34.6068
45.7336 -20.2099 15.0768
33.5650 -37.0593 48.2697
10.9011 -48.7972 13.6944
47.6771 15.0630 32.5608
28.4327 41.1289 -33.3126
1.9912 49.9603 37.3737
4.8864 -49.7607 -5.6744
27.4278 -41.8057 -7.9112
-9.1819 49.1497 -22.1009
-47.0215 16.9995 12.6311
21.0540 -45.3512 -45.7063
5.9157 49.6488 -43.3742
34.6249 36.0710 28.8423
42.5533 -26.2529 47.7260
28.6122 41.0042 11.4765
-26.1752 -42.6012 2.1438
2.6222 49.9312 -19.2651
-24.8107 -43.4100 -1.8867
-26.6650 -42.2963 -41.1936
-44.5256 22.7479 -49.0666
-49.6531 5.8800 -45.0039
-47.2306 -16.4093 -15.2760
-43.7848 24.1432 20.2481
25.8117 42.8224 -7.5085
-4.5079 -49.7964 -14.6581
-30.7867 -39.3977 32.6914
-13.4675 48.1521 -24.9688
-16.7840 47.0988 -30.4595
26.7453 42.2456 14.3976
41.5709 27.7824 46.8484
37.1189 33.4990 17.2561
23.3811 -44.1964 48.8931
37.6568 -32.8932 25.2247
-48.8752 -10.5459 -16.1927
-49.9884 1.0771 49.4282
47.4238 -15.8425 13.3631
41.5523 -27.8101 -40.2626
45.1128 -21.5601 19.9986
-49.5022 7.0382 16.5018
-49.2220 8.7860 20.4416
-35.9854 34.7138 -7.2164
23.8367 43.9524 -49.6448
49.3178 8.2312 10.8279
-34.9864 35.7205 -0.8202
47.2631 16.3155 -5.2397
-26.3718 -42.4797 23.3740
47.5482 -15.4650 -39.6533
-42.4744 -26.3804 10.0459
12.2054 -48.4874 5.3116
-33.8552 36.7944 23.5612
-35.1261 35.5831 -41.9969
-45.6993 20.2872 28.5348
17.0874 46.9896 -21.0719
11.6088 -48.6337 49.7199
-46.3118 -18.8472 -43.3388
-17.0134 -47.0164 -47.4060
-26.8196 -42.1985 -48.8513
-41.2747 -28.2205 -42.3311
49.3824 -7.8346 31.7978
-30.5859 -39.5538 -33.9494
-44.9496 21.8982 -25.7247
27.1084 -42.0135 -30.7949
-13.1241 48.2469 8.0125
7.5563 -49.4257 34.0691
-11.9356 48.5545 32.3829
-3.7185 -49.8615 8.9211
-20.1420 45.7635 23.2815
19.3493 46.1043 -0.4374
17.7811 -46.7315 44.8996
-49.6551 -5.8630 -13.4791
47.0052 -17.0443 3.5661
45.2957 -21.1732 -15.4558
49.9058 -3.0683 3.2706
-49.4181 7.6058 -9.1787
12.3870 48.4413 -42.9345
-25.1708 -43.2022 -37.1587
-49.8663 3.6541 40.9344
36.2276 34.4610 -17.3000
40.6514 -29.1112 36.0405
-49.9576 -2.0588 14.7097
-49.3049 8.3080 -14.0275
28.0817 41.3693 -44.8506
-30.8791 -39.3253 46.4833
23.4112 -44.1805 37.8559
49.9193 -2.8394 0.5590
40.2424 -29.6740 37.4663
-38.7526 31.5949 -7.7797
-2.5628 49.9343 -36.6607
44.2858 23.2114 8.4117
-27.2109 -41.9472 -28.7028
-36.2216 34.4673 -16.9597
-30.9541 -39.2663 25.1581
-27.2403 -41.9281 -47.8326
48.7397 11.1554 25.4018
2.1334 -49.9545 -9.6905
-28.6234 -40.9963 3.7632
35.7808 34.9247 22.7597
16.8799 47.0645 -17.7660
-47.4305 15.8223 -44.8423
-48.0953 13.6689 -21.9405
36.0000 -34.6987 27.4005
-27.9565 41.4540 17.4722
33.1475 37.4332 -41.6452
-15.4163 47.5641 -25.7399
-31.1745 -39.0916 3.7658
-37.9468 32.5583 -29.7694
-35.0924 35.6164 -19.3553
19.8073 -45.9094 -0.6350
-11.0346 -48.7672 -26.6111
-43.4074 -24.8153 -9.7542
-49.8594 3.7474 -31.8257
-49.9143 2.9260 12.0651
37.7335 -32.8052 -5.1797
47.6475 15.1565 21.7891
-44.2790 -23.2244 13.5030
14.1423 -47.9583 -36.5285
10.8454 48.8096 21.2241
-39.0769 31.1929 16.4429
-21.6515 -45.0690 -15.1206
-34.2319 -36.4442 -38.3357
43.9469 -23.8469 26.4820
4.9605 -49.7533 32.8490
-44.3558 23.0774 31.2822
-18.7682 -46.3439 5.1052
18.4122 46.4865 -33.7300
46.9114 17.3009 -21.7507
29.0363 -40.7050 41.4959
-31.2785 -39.0084 -7.6102
-41.7255 -27.5496 -17.4698
20.6019 -45.5584 -29.9438
-37.1893 33.4209 17.1288
-49.9863 1.1704 29.9281
-46.3469 -18.7607 13.0879
48.4974 -12.1657 12.8252
-46.5877 18.1544 45.9855
49.9980 -0.4514 -23.2844
-47.3106 16.1775 -48.9889
45.6695 20.3542 -41.9495
39.9485 -30.0686 28.8973
3.5570 -49.8733 17.6716
-12.2496 48.4762 -27.6171
15.5541 -47.5192 -14.1456
-23.8352 43.9532 45.6686
-46.2280 -19.0519 -48.5977
-49.9907 -0.9668 44.3246
-45.2928 -21.1792 -13.9606
25.7335 42.8694 39.6957
-4.6798 -49.7805 29.6199
-48.7020 11.3189 -47.7876
-27.0058 42.0795 2.6498
36.2648 34.4218 17.7376
-45.3273 21.1053 -9.4947
-2.5544 49.9347 -9.2836
29.3382 40.4879 24.8604
-35.8137 34.8910 1.8713
45.0093 21.7752 21.2434
48.9520 10.1835 26.3963
44.2347 23.3086 36.1149
-9.8214 49.0259 -0.4951
-23.4914 44.1379 -42.7991
-11.5210 -48.6546 39.5129
-3.7266 -49.8609 49.1196
38.7166 31.6389 -23.6197
-47.9003 14.3374 -12.3978
1.7813 49.9683 -28.9293
-20.4241 45.6383 41.8606
26.0966 -42.6494 -47.3664
-14.6089 47.8182 -36.2167
-11.4345 -48.6750 12.0607
-49.8545 -3.8119 -1.1525
-48.1167 13.5936 -35.6545
19.6015 45.9976 -48.5175
13.9625 -48.0109 -30.9232
4.6863 -49.7799 -33.3324
47.1065 -16.7623 -36.8186
-38.5100 -31.8901 22.5255
-34.1296 -36.5400 17.1056
18.2692 46.5428 -32.3669
35.6511 35.0571 -17.5982
-38.5830 -31.8017 -41.4105
-34.1504 36.5205 -32.9557
-24.7211 -43.4611 11.8650
43.1609 -25.2415 -39.5239
3.4545 49.8805 -48.8296
-48.0083 13.9715 -0.6689
14.0004 -47.9999 15.2345
-28.0734 41.3749 40.1923
-49.8518 -3.8465 10.3291
48.2573 -13.0855 38.8111
-43.6129 24.4523 -12.1761
6.3840 -49.5908 -12.1852
-43.8132 -24.0916 -33.2142
-49.9868 1.1470 16.7745
18.3129 -46.5257 -26.0243
40.4657 -29.3688 32.6563
17.7389 -46.7475 42.1616
-40.7886 28.9187 14.0855
-36.5463 34.1229 8.1024
-11.0140 -48.7718 17.2180
-24.4380 -43.6209 21.5305
19.7826 -45.9200 7.2366
-12.8641 -48.3168 8.4854
16.3484 47.2518 -21.1877
22.3058 44.7487 2.4504
49.9992 0.2804 25.5965
26.4018 42.4611 48.1143
-49.6729 -5.7097 -47.8142
-33.8661 -36.7844 -4.7676
-28.5181 41.0697 25.6778
40.7878 28.9197 46.7375
-45.2779 21.2112 -9.8463
-34.6551 -36.0420 -9.1447
21.3818 -45.1975 -8.3493
12.4409 -48.4275 15.8514
49.9119 -2.9662 8.7144
27.4041 41.8212 -24.8992
7.6082 49.4178 37.6389
-41.9720 27.1726 -13.7431
45.9834 19.6347 -15.6177
15.5504 -47.5204 -15.5696
22.9662 -44.4135 39.4126
-2.1778 49.9525 39.5418
45.9841 19.6332 -34.1097
18.7539 -46.3496 -41.3280
-23.8958 43.9203 -43.2781
-2.8830 49.9168 35.1129
17.6600 -46.7774 -42.7314
-27.7916 -41.5647 40.2276
-49.0711 9.5928 -15.8568
46.7639 17.6957 -43.7640
19.1112 -46.2035 17.4958
49.9109 -2.9836 -39.6683
32.4786 38.0150 3.5785
-28.8411 40.8435 17.5464
-22.0281 44.8861 -19.0135
49.0657 -9.6208 46.6942
-12.2732 -48.4703 25.0503
48.9942 9.9785 -29.3749
-3.7662 49.8580 35.8933
-0.2714 49.9993 33.5438
-16.4261 -47.2248 -46.8900
-10.0821 48.9730 29.1870
43.6102 24.4572 33.8840
22.8104 44.4937 -32.5235
-27.0354 42.0605 49.8962
-49.1888 -8.9703 -25.3530
-10.0681 48.9758 -6.0641
39.3000 30.9114 -35.8760
26.7824 -42.2221 33.7897
38.9380 31.3661 -24.3060
44.5624 22.6759 -24.8743
30.0241 -39.9819 -39.2583
-43.3948 24.8372 46.0984
-9.3262 49.1225 37.9467
-14.4229 -47.8746 25.6829
-23.4618 44.1537 33.8524
-37.4568 33.1208 -37.4776
18.7656 -46.3449 -7.9977
-44.4730 22.8506 43.0326
4.8141 49.7677 43.4929
27.6670 -41.6477 -16.1070
26.0981 -42.6484 -19.6260
41.7918 27.4490 14.2549
-37.0704 33.5528 -21.1613
38.0053 -32.4900 26.2876
-46.3096 18.8526 34.5648
17.9853 46.6533 -8.8067
-34.6517 36.0452 11.9478
-35.3453 -35.3654 -33.4889
-9.7373 -49.0427 -22.9129
6.1590 49.6192 -10.0418
-20.9393 -45.4042 25.7838
-48.2732 13.0270 -18.1821
45.1636 -21.4534 20.3238
-40.4346 29.4116 36.1809
12.1539 -48.5003 23.7075
-49.8129 -4.3220 34.1017
-46.5995 -18.1243 -26.0275
46.5664 18.2092 14.1778
18.6909 -46.3751 32.9464
-18.3614 -46.5065 -44.2238
36.7187 33.9372 -46.0493
47.7303 14.8935 -25.8493
-44.0431 -23.6687 5.0883
39.5106 30.6416 25.8040
-10.7329 -48.8345 2.6727
30.9300 -39.2853 -20.0910
2.1408 49.9541 46.6628
8.8816 -49.2049 -42.7604
-11.0345 48.7672 4.2861
-49.9364 -2.5211 -31.8518
-1.9697 49.9612 -5.1832
-27.7757 -41.5753 -42.2062
-28.4269 -41.1328 -25.0091
19.7777 -45.9221 35.2566
31.4176 -38.8964 -23.5134
23.8838 43.9268 28.7824
36.3909 34.2885 48.0755
47.5348 15.5061 4.2986
12.1966 48.4896 46.4465
-24.7429 -43.4487 28.7314
33.1387 37.4410 29.6157
49.9210 -2.8100 44.6303
29.8750 40.0935 -11.8330
-43.5536 24.5578 -1.6483
-25.7407 -42.8651 -4.1339
32.5183 37.9810 39.7697
-0.4779 -49.9977 -22.4905
36.6877 -33.9708 29.2437
-23.5361 -44.1141 1.4545
-45.6241 20.4558 -21.6887
30.0560 39.9580 37.9244
-40.3059 -29.5878 -49.4553
7.8692 -49.3769 28.3257
-13.4856 -48.1471 -19.2430
33.2326 37.3576 -38.2918
7.7419 49.3970 38.0437
-39.4272 30.7489 21.9989
44.6213 22.5596 -21.2487
-3.0673 -49.9058 -31.6222
49.9091 -3.0136 -46.5854
37.7477 32.7889 39.6277
43.4672 24.7105 10.9377
-20.1747 -45.7491 -20.4978
-48.0084 13.9711 -2.4308
37.1875 -33.4229 -43.8269
38.4747 -31.9328 -6.0250
45.1810 -21.4168 44.6217
-49.3240 8.1942 34.8612
-6.1878 49.6156 19.1819
48.6942 11.3523 9.4672
-40.1357 29.8182 4.3266
30.7201 39.4496 8.7788
-32.7820 -37.7536 4.4629
-45.5819 20.5496 15.7126
47.8974 14.3470 43.6061
-47.9672 -14.1119 -17.1352
-22.7228 44.5385 -10.7139
27.5599 -41.7187 19.5645
-48.9911 9.9937 17.9261
11.8016 48.5873 -48.1641
-32.0131 38.4078 19.4881
7.7754 -49.3917 -28.2732
-45.2825 -21.2013 35.9810
-44.5024 22.7933 -8.2326
10.2784 48.9321 39.4571
46.3955 -18.6401 -16.5436
-8.9866 -49.1858 -10.7515
8.2254 -49.3188 4.8921
45.5198 20.6869 7.8625
-47.6700 -15.0854 26.2671
34.6055 -36.0896 -0.5803
-15.2483 -47.6182 -37.3093
-30.7014 -39.4642 10.7284
-22.6594 -44.5708 49.8879
47.0124 17.0246 -16.7346
-21.6582 -45.0658 27.9567
-34.3052 -36.3752 -3.0272
30.6389 39.5128 -36.4032
45.9549 19.7015 -38.9750
-36.9617 -33.6725 46.4101
5.0671 -49.7426 4.0506
29.2190 -40.5740 -30.9240
42.4453 26.4271 6.7781
45.1271 -21.5301 22.0072
45.3991 -20.9505 -21.5002
47.6199 -15.2427 11.9816
-40.6194 29.1559 -12.0896
49.6201 -6.1521 -6.5362
-21.1001 45.3298 28.3926
-27.8044 41.5562 22.3659
-28.6196 -40.9990 -21.2122
30.5274 39.5990 -29.7170
47.8788 -14.4090 8.1313
-41.5174 -27.8623 30.7545
49.8177 4.2659 -43.4717
-45.1046 -21.5773 -47.9300
-44.7178 -22.3678 -45.7928
31.1029 -39.1485 44.7615
-12.0694 -48.5214 -49.5578
-39.6138 30.5081 16.0827
45.2661 21.2362 -45.6289
-18.7680 46.3440 21.6352
-40.9644 28.6692 6.9447
40.1054 -29.8590 8.1930
-10.7097 48.8396 16.8674
25.9110 -42.7624 0.8183
-28.0309 41.4037 -47.3491
-19.1726 -46.1780 45.7308
-48.0484 13.8330 17.1587
-40.3318 -29.5524 20.8605
36.6132 34.0511 -11.2086
49.9337 2.5736 -30.7689
39.2908 -30.9230 -4.7193
24.0062 43.8600 3.3719
4.5898 49.7889 35.7583
-33.0228 37.5432 -41.9514
1.0035 -49.9899 38.0307
39.9923 -30.0103 41.1186
-24.9204 43.3471 -0.7111
-31.8800 38.5184 38.3744
-34.7980 35.9040 -32.1383
47.9085 -14.3099 45.1431
-49.5313 6.8298 -11.6097
16.7782 -47.1009 2.3283
-45.4436 -20.8537 27.8740
-5.6674 -49.6778 8.3514
28.5588 41.0414 -4.9333
48.6623 11.4881 -10.2302
16.9784 47.0291 -45.1081
31.0633 -39.1800 30.7731
49.9029 3.1138 -15.8029
49.9929 -0.8428 33.9467
-0.7931 -49.9937 29.9538
-37.0608 -33.5633 40.0316
-9.1907 49.1481 -38.0350
25.4342 43.0476 -16.5610
44.4291 22.9358 -36.4732
0.1002 49.9999 -3.9307
-2.7589 49.9238 36.9007
49.9994 -0.2486 -22.2953
-19.4291 46.0707 -21.9532
49.3118 -8.2673 9.2210
-32.1611 38.2840 27.6907
10.3375 -48.9197 9.7895
44.7338 -22.3358 24.5454
36.2567 34.4304 -48.1227
22.0677 44.8667 -2.7316
25.3504 -43.0970 31.1070
49.2318 8.7308 28.9458
-10.5853 -48.8667 40.0956
13.8136 48.0540 -22.4247
24.7054 -43.4700 31.9495
-1.7147 -49.9706 23.6713
-34.8848 35.8197 -0.3283
-48.9366 10.2571 27.5090
-30.8915 -39.3156 -1.4577
-36.4123 34.2658 -1.7740
-49.9567 2.0799 24.2216
45.6277 20.4479 10.0551
11.7181 48.6075 -28.8672
37.0033 33.6267 28.9695
-32.7597 37.7730 -33.8208
22.5129 44.6449 0.8952
28.8381 40.8456 42.8993
26.1790 -42.5988 -37.4874
-36.2154 34.4738 1.7905
43.6050 -24.4664 -36.0852
-14.6043 -47.8196 -47.1941
-11.1481 -48.7414 -5.3275
34.2217 -36.4537 42.7429
9.6679 49.0564 -28.2942
-47.9086 -14.3098 27.3785
40.8293 28.8611 -31.8489
46.1563 19.2248 16.8114
26.5461 42.3710 4.4369
-44.0351 -23.6835 -45.3245
5.1835 -49.7306 31.3485
34.1195 -36.5494 18.1083
49.7127 -5.3522 -26.1376
-6.5295 49.5718 -10.5412
11.0570 48.7621 -24.2043
-19.5220 46.0314 -42.9503
43.4711 24.7035 35.2856
-48.3492 -12.7418 26.2518
28.7139 -40.9330 45.7366
34.0829 36.5835 30.7771
49.1072 -9.4068 -3.9361
7.2126 49.4770 -43.2010
42.3789 -26.5335 -2.7156
-17.8828 46.6927 -7.4109
-25.0773 43.2565 33.4609
-24.9334 43.3396 -34.4280
-33.0630 37.5079 -8.0715
3.5411 -49.8744 11.7968
26.6009 -42.3366 28.8247
49.4696 -7.2637 32.5312
44.1778 23.4164 43.6943
-23.4457 44.1622 13.3766
6.0376 -49.6341 -8.4214
-49.5403 -6.7646 -15.6808
35.6905 35.0170 -49.6061
-24.6104 -43.5239 -18.5121
49.6472 5.9293 -36.2925
-49.4128 -7.6406 35.9552
-38.4257 31.9916 -5.2491
29.2906 -40.5223 4.2113
47.8565 -14.4828 9.2219
-8.8982 49.2019 -5.2195
48.8642 -10.5967 17.7165
-49.9998 -0.1569 7.2329
48.3738 -12.6483 -16.4655
-8.8802 -49.2051 36.5030
-47.2769 -16.2756 -39.6059
-37.3541 -33.2366 -4.1538
22.0322 -44.8841 39.2625
49.7482 5.0112 2.8770
-37.1301 33.4867 7.6691
-38.1899 32.2727 13.9236
30.2205 -39.8337 -30.6722
-41.8675 -27.3334 -29.2676
-49.9986 -0.3768 -7.0970
43.9757 -23.7936 21.8741
-1.9177 -49.9632 -44.3711
45.3252 -21.1098 -6.8281
43.9654 23.8128 -0.0782
25.7576 -42.8549 22.3504
-35.5588 -35.1507 23.4367
24.3146 -43.6898 -35.2623
-46.1036 19.3509 -10.3365
-19.6716 45.9677 -23.3501
8.2271 49.3185 37.8346
-43.6945 24.3061 12.4678
-49.2352 -8.7116 7.6216
-28.8573 40.8321 28.1649
-30.4363 -39.6690 -47.1691
-47.7794 -14.7351 -25.1159
-45.9031 -19.8218 20.5284
10.9473 -48.7868 -17.9478
24.9907 -43.3066 46.9144
-12.2785 -48.4689 21.5060
-38.0379 -32.4518 44.3474
-23.8500 -43.9452 -24.3229
-10.0760 -48.9742 -35.7727
39.8267 30.2297 -36.5118
40.9828 28.6429 22.2662
46.4292 18.5561 -8.4617
39.7956 -30.2706 9.1418
21.2965 -45.2378 -41.3974
49.7496 4.9980 -38.9353
22.3389 44.7323 -19.8968
42.2869 26.6799 -40.7152
-48.6541 -11.5228 -9.8468
49.9018 -3.1328 44.4531
-40.5416 29.2640 -14.0355
44.9854 -21.8246 -3.7161
-44.6090 -22.5840 -31.9144
4.1756 49.8253 -6.6676
46.2876 18.9065 -30.2843
-43.7863 24.1405 9.7941
-49.2781 -8.4657 -48.8343
3.8793 49.8493 -35.7922
24.6234 -43.5165 -2.0523
46.8355 17.5053 -3.6852
-47.5225 15.5438 43.8832
-11.0464 48.7645 1.6219
18.1564 46.5870 21.3239
10.5624 -48.8716 34.8730
39.2911 30.9227 -1.3757
-6.6981 -49.5493 -20.4053
-10.2291 48.9425 37.0912
4.6865 -49.7799 21.7963
45.1273 21.5296 -3.1738
-38.8270 -31.5034 14.9143
-42.3986 -26.5021 -9.4851
17.0447 47.0051 5.7283
-31.3825 38.9248 47.1179
-49.9966 0.5862 47.3562
7.5787 49.4223 -24.1675
-39.6064 -30.5178 -44.6341
45.1878 -21.4024 -20.9591
-46.2273 19.0536 5.3925
23.4654 44.1517 -27.9965
4.6408 49.7842 -10.3876
-49.9847 1.2376 24.6588
17.2143 46.9433 -19.9530
-38.0776 -32.4052 4.9956
40.3169 29.5728 -10.2224
13.7922 48.0601 1.6864
-49.9673 1.8083 -2.7872
37.4352 33.1452 33.8701
24.6456 43.5040 47.7466
-0.0943 -49.9999 -41.0186
-15.7101 -47.4678 -39.1052
-49.7903 4.5743 17.1413
-47.2089 16.4718 49.4282
21.2427 -45.2631 41.1929
42.4666 26.3929 6.0429
-32.5497 37.9542 -49.7362
2.4421 49.9403 1.7846
-48.9302 10.2875 -42.5641
22.7747 44.5120 18.1010
-9.6762 -49.0548 17.4808
-44.9428 -21.9121 -22.7630
-22.7042 44.5480 -11.4234
-49.4659 7.2889 33.0616
-48.2217 -13.2162 -20.4204
-31.4005 38.9103 -23.7227
30.9397 -39.2776 9.5531
-49.7053 -5.4207 -1.2279
-49.5023 7.0373 21.1488
29.9626 40.0280 26.5930
-44.5534 -22.6934 47.9708
-49.4232 -7.5729 -40.3117
10.3162 -48.9242 -8.5197
24.0651 -43.8278 34.3563
37.5638 32.9994 -21.5003
43.1043 25.3381 -29.5842
46.9732 17.1324 -21.5509
-44.8695 -22.0620 -30.4350
-26.6168 42.3267 -31.5922
-20.0968 45.7834 -29.4411
-49.4575 7.3453 -41.6052
49.8178 -4.2641 22.7048
40.9587 28.6773 -17.2498
49.3165 8.2390 23.3530
-43.8041 -24.1082 -28.9509
-49.7983 -4.4861 -11.3148
45.0517 21.6875 -40.9011
47.9404 14.2028 20.9476
-36.0933 -34.6016 18.4748
-48.7180 -11.2496 -3.9951
-35.9099 -34.7919 -9.8497
49.5706 -6.5385 42.1959
-26.3471 42.4950 7.5949
-27.9491 41.4590 6.2403
-44.5102 22.7781 40.9647
46.7643 17.6945 6.6393
7.3208 49.4612 0.4218
-48.3486 -12.7442 38.6227
-14.9205 -47.7219 -23.1727
-31.8880 -38.5117 26.3716
43.6690 24.3519 -47.3246
5.9746 49.6418 -29.8114
40.7716 -28.9426 -32.1934
30.5960 39.5460 28.2621
32.2693 38.1928 34.3052
-2.7991 49.9216 9.7566
-41.9471 -27.2111 -5.0685
39.7349 -30.3503 46.5540
-35.7556 34.9505 -0.8161
-41.8999 27.2836 33.0392
-42.6809 26.0451 36.6637
39.4524 30.7166 30.8041
3.7237 -49.8611 0.3412
-7.7837 49.3904 -27.7370
43.0017 -25.5118 37.1948
29.0850 -40.6702 -24.3744
-3.5068 49.8769 -32.7318
44.8828 22.0347 -5.7488
35.7734 -34.9322 29.9617
39.7869 -30.2821 16.2142
42.5024 26.3352 -17.3906
42.3050 -26.6512 3.3328
39.0765 -31.1933 11.4581
27.8437 41.5298 -33.9126
33.9129 36.7412 9.3075
-0.9457 -49.9911 42.5202
47.3656 -16.0155 -23.7187
5.8613 49.6553 46.5298
34.5365 -36.1556 11.4342
-24.7275 43.4574 -29.7758
40.7872 28.9207 -41.1661
47.6877 15.0293 -42.3418
44.6779 -22.4473 -33.7632
1.3790 49.9810 12.5459
-38.9763 -31.3185 3.8846
30.5768 -39.5608 31.7865
49.9845 1.2461 0.5068
24.7225 -43.4603 -3.4462
-47.9143 -14.2907 2.0901
-22.5650 44.6186 5.4665
-27.4421 -41.7963 1.9988
26.7547 -42.2396 29.1301
-47.5315 -15.5164 -2.9526
49.7912 4.5643 31.2130
37.8053 32.7225 46.4305
-20.6547 -45.5344 -6.3995
48.8874 -10.4889 -28.4163
30.8034 -39.3846 -29.5573
-44.8575 -22.0862 -24.7933
-22.4175 44.6929 -15.2903
17.2048 46.9467 23.7869
-44.3700 23.0500 -6.3294
33.3352 37.2662 0.6149
-33.9584 36.6991 -45.3142
41.0183 28.5920 16.8356
-31.6001 38.7483 27.4174
47.6908 -15.0195 -14.5960
29.4695 40.3925 38.8565
-28.1127 41.3482 13.7757
34.2451 -36.4317 -18.2697
-36.8400 33.8056 0.1861
47.2952 16.2223 26.7831
-9.7327 49.0436 32.5647
36.6587 -34.0021 39.8666
46.9003 17.3310 -11.3673
49.1374 9.2473 23.6601
22.6919 44.5542 14.0139
-27.5069 -41.7537 -48.9487
49.7741 -4.7472 -45.7315
-24.7899 43.4219 35.0466
16.4215 -47.2264 -12.3542
32.1756 -38.2718 12.6230
-21.4375 -45.1712 -43.8617
41.8329 27.3862 27.6375
3.9523 49.8435 6.7086
-16.2094 47.2996 49.8143
43.4410 24.7564 4.7014
-11.6082 48.6338 -5.9897
-42.4122 -26.4804 -13.3846
41.2882 -28.2008 -3.0804
-16.4695 -47.2097 16.7948
-46.8369 -17.5015 26.0826
14.3420 47.8989 -36.7567
-43.0660 -25.4031 -45.6169
-17.7868 -46.7293 -45.4450
-42.6544 -26.0884 -33.2951
-27.2143 -41.9450 -19.1015
48.5843 -11.8140 48.7221
49.6125 -6.2133 16.6872
-7.0630 49.4986 -36.4906
-28.1504 41.3226 -34.6276
19.5634 -46.0138 25.9528
-31.8474 38.5453 -38.2269
48.5303 12.0337 -4.5199
-45.1965 -21.3841 -31.6443
46.1713 -19.1889 3.7612
-48.3946 12.5684 46.0225
9.4562 -49.0977 -45.1041
28.9974 40.7327 28.4155
2.6568 49.9294 -19.7536
-17.2471 -46.9312 14.8953
-49.6767 -5.6766 35.6651
41.5520 -27.8106 33.7809
1.0045 -49.9899 -20.1294
-39.9825 30.0233 7.4364
37.4058 -33.1784 3.0734
49.9994 0.2544 18.0227
-45.4152 20.9154 11.0590
19.8067 -45.9096 37.8966
-2.4066 -49.9420 23.1850
-7.3208 49.4612 35.3306
-49.8212 -4.2250 23.6956
30.8673 39.3346 40.8482
48.2065 13.2715 39.7678
18.4542 -46.4698 5.3814
-9.6801 -49.0540 11.0331
31.1673 39.0973 9.5028
44.2620 -23.2567 42.7500
26.5568 -42.3643 -46.4218
49.2481 -8.6387 -42.6649
-16.0722 47.3464 13.0152
-37.5309 33.0368 38.9835
46.5183 -18.3316 -20.0224
49.7508 4.9862 -8.8978
46.6568 -17.9763 34.3360
12.3086 -48.4613 -40.3226
-44.9343 21.9297 -28.0809
14.7812 47.7652 -2.4646
20.5526 -45.5806 41.1768
49.9908 0.9578 33.3608
46.1169 -19.3192 -32.9672
-48.2652 -13.0565 42.2013
-13.6417 48.1031 44.2925
40.0908 29.8785 16.7553
24.4139 -43.6344 -28.9566
-48.5786 -11.8371 28.7343
0.1231 -49.9998 -37.4319
32.5753 -37.9321 -12.8449
2.1833 49.9523 -48.7655
-49.9266 2.7075 44.5951
-36.4671 34.2074 -40.2405
-21.3342 -45.2201 -10.9273
-33.8907 36.7616 -34.8653
48.4933 -12.1820 -22.8927
-35.8020 34.9030 -9.3310
34.5862 -36.1081 -20.3144
49.9526 -2.1775 -0.8576
-10.7874 48.8224 37.8417
37.9398 -32.5664 -0.8145
-22.3650 -44.7192 33.4446
-23.9845 43.8719 43.8980
-49.9553 -2.1145 29.5272
-43.7816 -24.1490 -6.0517
49.9900 -1.0017 -13.0748
-2.3642 49.9441 15.4463
36.6724 33.9872 -15.4313
42.7307 -25.9632 -42.9294
-41.0744 -28.5113 8.0896
-14.6650 -47.8010 -21.8416
-27.9738 41.4423 -46.6923
-13.8100 48.0550 -27.7718
-16.3764 -47.2421 8.3945
10.6058 -48.8622 -46.6263
47.7029 14.9810 5.2506
-43.8352 24.0515 5.8267
46.3012 18.8732 -18.3300
21.5109 45.1363 -33.4552
14.4930 -47.8535 43.2033
-0.8072 -49.9935 40.9268
49.7020 -5.4504 -17.8748
13.4753 -48.1499 5.0076
-25.5718 42.9660 -35.9322
46.4308 18.5521 13.8954
31.8493 -38.5437 -22.2552
-7.0255 49.5040 -36.6858
30.4971 39.6223 28.7930
-12.6854 -48.3641 14.4004
-2.3401 49.9452 -31.8965
12.5447 -48.4007 -1.8220
-26.8681 42.1676 -23.4876
-46.8103 -17.5727 49.3877
44.5645 -22.6717 -37.0186
-37.2208 33.3858 -3.6460
-49.9760 -1.5504 -17.5087
13.3001 48.1986 -23.5586
-34.7145 35.9848 -2.3731
7.8297 49.3832 21.0795
49.8238 -4.1935 -20.2246
-12.3353 -48.4545 14.8773
49.3352 -8.1267 -7.4554
-27.1698 -41.9739 16.7491
-29.9392 -40.0455 -40.0768
-7.3155 49.4619 -12.9651
34.3615 36.3220 24.1924
-33.2336 -37.3568 5.1988
12.6509 48.3731 -37.0068
25.2849 43.1355 -38.5310
40.3696 -29.5008 -49.8781
-49.5975 6.3317 -45.6380
44.9511 21.8952 -12.4046
-33.6509 -36.9813 32.6361
36.6421 34.0200 31.7930
-39.6721 30.4323 -28.5004
-49.8909 3.3010 -41.1123
-36.8732 -33.7694 -26.0645
40.0252 29.9664 22.1567
-43.0194 -25.4819 -22.3382
49.6533 5.8783 -41.4660
-32.0665 -38.3633 -47.7233
29.9291 -40.0531 -5.1926
2.5726 -49.9338 8.5949
-27.0517 42.0501 -32.3515
-34.9285 -35.7770 26.7859
25.2342 -43.1652 -33.8867
6.1264 49.6232 -14.6819
49.7870 -4.6104 44.6563
5.5110 -49.6954 -9.9928
-12.8013 48.3335 1.7422
-0.0236 50.0000 24.6184
47.3677 -16.0095 34.0226
21.6055 -45.0910 28.0291
-40.4492 -29.3915 42.7964
10.9259 48.7916 -15.4400
6.9822 -49.5101 -47.5470
38.4205 31.9979 11.5773
45.2491 -21.2724 44.6899
-40.1516 -29.7968 -9.0416
15.4005 47.5691 -21.8831
17.0572 47.0005 0.5814
49.2295 8.7439 4.9608
-44.7297 22.3439 -48.7083
1.2479 -49.9844 -4.0868
3.3521 49.8875 -30.5587
-32.9811 -37.5799 -2.9830
25.8861 -42.7775 38.8549
6.3776 49.5916 1.2601
-31.0139 -39.2191 36.2608
3.2361 49.8952 0.3141
-48.0361 13.8756 1.2153
-37.6780 -32.8689 -30.0003
47.5083 -15.5872 -20.0702
6.1686 49.6180 49.5071
8.0540 49.3471 -45.5899
6.1970 49.6145 31.7912
-49.9210 2.8100 32.2557
47.0633 16.8832 43.8947
14.8800 47.7345 38.8831
33.6178 -37.0114 -12.5031
-32.8328 37.7095 -1.5640
41.4948 -27.8960 46.1955
33.7716 36.8711 34.9820
-5.3847 49.7092 37.0168
-47.3456 -16.0747 -33.3194
-32.1405 38.3013 -14.1560
4.1438 -49.8280 -49.4593
-45.0957 21.5957 -8.0440
38.1273 32.3467 -34.5141
8.0980 49.3399 7.6329
49.4963 -7.0796 -31.4666
40.1019 -29.8637 1.1096
21.9316 44.9333 38.7877
-38.3931 32.0307 30.0775
8.5060 49.2712 -39.5911
30.4788 39.6364 41.3691
22.3468 -44.7283 -27.8520
-38.8858 -31.4308 -1.8007
-33.9140 -36.7402 42.4657
35.6329 35.0756 -43.6420
-49.7581 -4.9125 9.1949
-49.9672 1.8096 -20.1445
46.1671 -19.1989 13.6984
49.9732 1.6367 44.1604
-17.9372 46.6718 38.2512
23.4171 44.1774 23.1864
38.8661 -31.4552 -33.8068
-41.0212 -28.5878 7.3856
24.3750 43.6561 -32.5582
-44.6167 22.5688 -13.9581
44.4403 -22.9141 -3.8085
22.1155 -44.8431 36.9088
-42.8349 -25.7909 45.3846
49.4804 7.1896 1.9158
-41.6571 27.6529 31.1037
-49.6693 -5.7412 -17.8692
3.8159 -49.8542 -27.4254
49.1807 -9.0146 -31.5497
3.2104 49.8968 16.6580
-49.3473 -8.0528 -37.7833
12.9277 -48.2998 -26.3758
-29.2050 40.5841 27.1243
17.5120 46.8330 -12.6604
-12.0380 48.5292 -22.2664
-49.8468 3.9111 -33.0560
-12.1264 48.5072 -13.7903
47.9924 14.0261 -44.9929
48.5610 11.9093 38.0618
-36.2544 34.4328 -24.5593
-39.1450 -31.1074 -33.3317
27.8753 41.5086 -4.4685
22.7554 44.5218 -5.3171
-30.9834 39.2432 28.0146
49.1995 8.9111 -21.0477
49.6445 -5.9518 16.1711
18.6916 46.3748 47.6543
-10.3121 48.9250 41.6176
-28.8768 -40.8183 -18.9444
-28.9132 -40.7925 -22.4616
-47.4771 -15.6820 -33.1807
45.4687 -20.7989 -32.7354
49.7499 4.9950 32.6896
-49.8012 4.4538 -37.6106
-12.1869 -48.4921 -42.9440
44.8333 22.1354 -37.1007
45.5958 20.5187 -28.5965
43.9477 -23.8453 23.1922
-30.0270 -39.9797 3.4458
49.9775 -1.5011 49.6253
-12.0236 -48.5328 -24.3035
-49.3276 -8.1726 4.9686
3.8132 -49.8544 48.7870
-36.9775 -33.6550 35.1271
21.7534 -45.0199 43.5898
-33.6604 36.9726 19.2879
-32.3070 -38.1609 -36.4903
49.9672 -1.8119 -36.0548
-31.2871 -39.0015 0.0798
49.8971 -3.2055 39.1427
-22.5962 -44.6028 -23.2569
49.6836 -5.6158 -38.4811
-49.9838 -1.2728 36.6742
49.9998 0.1520 3.9161
29.8866 -40.0848 22.1948
-46.5131 18.3448 42.1044
-39.4261 30.7504 9.2568
42.1422 26.9080 -28.1858
49.4532 7.3744 38.3151
14.6836 -47.7953 19.5686
-43.7600 24.1880 35.6289
-48.7753 -10.9988 -37.1395
9.1744 49.1511 -44.2686
47.0235 16.9940 1.3485
-48.5143 -12.0979 -10.4120
-37.5184 -33.0510 -21.6211
47.5971 15.3140 25.2782
-22.6018 -44.6000 -49.1503
-49.9840 1.2647 -34.2461
-49.4012 7.7150 14.0562
